# 3D point list with one line of data per point:
#   POINT3D_ID, X, Y, Z, R, G, B, ERROR, TRACK[] as (IMAGE_ID, POINT2D_IDX)
# Number of points: 423, mean track length: 2.91094956837801
1144 -11.406818243139048 9.4246481353033396 24.421902595378867 80 65 70 1.1575277302981846 1 9443 2 8802 3 12821
1143 7.6405552219584303 11.876987611106813 28.550968524632161 120 118 114 2.0552644295942355 1 14737 2 21133 3 12817
1142 6.2330780737790672 -9.3624604460821441 24.303830483617421 80 112 80 0.88669743467990436 2 15057 3 12804 1 19333
1141 6.4103390353882901 -9.330301467908642 24.006566866306372 83 111 87 1.1503861629279675 1 10409 2 18627 3 12802
1139 -10.323283008711543 -14.412138330810427 34.992214681989736 104 104 92 2.2971357370523884 1 28552 2 4266 3 12769
1138 -2.3499463060900632 -14.375248287258861 32.383074098168777 105 113 113 2.9459913599170129 1 14293 3 12760 2 14792
1137 2.5985148963415172 3.6858406851601262 29.786418006162133 29 20 9 1.1501535153064748 1 13835 2 8231 3 12723 1 8454
1136 -8.2956937562340176 3.7324127865986791 30.319853686655613 65 83 44 0.17756030189707794 1 13811 2 8368 3 12722
1135 1.4917715428210874 3.5575397938023166 29.409825273996251 205 191 151 0.38495592193434991 1 8443 2 8217 3 12709
1134 -2.6460750104790103 2.0993865966787526 21.169735133436081 87 109 67 0.50114607582942694 1 23529 3 12706 2 20318
1133 12.811120304686515 2.6964166956906315 23.60835881694986 9 12 8 0.60908485130777135 1 13885 3 12695
1132 12.850818257989305 2.6453007102991579 23.623418427356473 173 190 106 0.16625007179379461 1 15918 3 12694
621 7.4722900573855089 -6.1030129603928733 20.82069434002927 126 124 99 1.5804607488918736 1 8274 3 7018 2 17971
622 -7.5331316180619918 -6.4489289538647814 23.793048464706736 67 84 40 1.4726348417242179 1 8118 3 7079 2 7962
623 -5.4936588026609119 -6.7867940263208073 24.66675488859487 41 48 43 1.111676777599041 1 4121 3 7104 2 7988
624 -7.0727706513975965 -6.4142255528199286 25.929116210060187 122 147 117 0.80553220924667635 1 8188 2 15630 3 7133
625 -7.12969196716789 -6.2232756689127795 25.79018635864324 48 52 40 1.1547477853955339 1 8206 2 11716 3 7159
626 2.0675473108258489 -7.2804534316442657 28.748135333320295 166 213 198 1.8178709419390797 1 12719 3 7206 2 29880
627 -2.7628483254227345 -9.784592109688008 33.111529898332293 231 254 204 0.9325122103073179 2 4096 3 7253 1 4152
628 -15.074303499401839 -8.8944504925189953 31.291634905547426 68 72 36 2.2720939937077942 1 1682 2 1115 3 7260
629 -14.145658143034062 -8.6463425441048081 29.888856839643715 83 75 54 0.86059675036330419 1 10864 2 7473
630 7.1239962215666344 -7.4039575464080318 21.680984560599651 62 86 59 0.95661850199874687 1 10893 3 7334 2 14975
631 6.8489877624068205 -7.5483855113574068 22.070685031101412 78 105 70 0.88551479740925687 1 10900 3 7344 2 14978
632 2.0631659993186333 -9.4946178331935922 33.421175470298415 75 104 86 1.4996751553917831 1 8081 2 15459 3 7425
633 -2.3319155629638417 -9.3368587142150226 33.399863168425114 195 235 202 2.5686862815475782 1 4241 2 8188 3 7439
635 -2.2042020436000076 -9.1536973959406609 32.797791780641013 142 137 107 0.91621675221896026 1 8091 2 8122 3 7478
636 2.0650091960102355 2.9568423216083577 29.345508122893118 150 136 102 0.61411670319063216 1 7517 2 8646 3 7491
637 -5.9252963978207829 3.0425285174140422 29.844059524467866 102 115 68 1.9462531845134812 1 8539 3 7494 2 8207
638 1.7071928525100171 2.9444673843963827 29.476485994271311 146 134 101 1.1997600465089029 1 15902 2 8639 3 7496
639 3.4413774430696993 2.9529240151741432 29.684564982197081 42 46 32 0.39163835985298223 1 14202 2 14338 3 7499
640 44.438068786953799 8.6221833468245741 67.968808442378347 145 126 93 1.3071467681152684 1 9197 2 5101 3 7515
641 2.5995247832423196 3.2368870927410875 29.797788789780764 96 97 72 0.47495894046263859 1 8526 2 4777 3 7518
642 -6.8883898825015981 3.2558941397046879 30.119809267750259 97 109 58 1.522123442961437 1 8508 2 8246 3 7519
643 -7.1470835057820929 3.2137513603822687 30.097719277860879 37 47 32 0.84153244196775523 2 2740 3 7525 1 2874
644 12.275011830808795 2.2209407334112092 23.875186240659328 25 22 12 2.4617656334423645 2 14720 3 7531 1 15959
645 -5.8948157978721518 3.1527891670560484 30.006513724001447 34 48 24 2.0507182089123366 1 6008 3 7535 2 5091
646 12.098583841192847 2.1964154171207722 23.937630189692033 195 208 121 2.3387557715738119 1 15957 3 7538 2 14613
647 2.018440878320698 3.0152883732522788 29.453359607393345 84 71 49 0.66179423221378586 1 8351 2 4758 3 7545
648 -6.1325246839258511 3.0760902388794924 29.916797993434773 115 130 77 1.6376103473500088 1 8535 3 7546 2 8205
649 -7.4631074970603919 2.628361498652402 29.851334861120069 72 94 69 1.0737344887735845 2 4740 3 7554 1 5145
650 -6.9680879157330153 2.6312284037045388 29.722449642623417 34 45 28 1.9101198066733829 1 15884 2 4742 3 7564
651 39.320212350299393 7.9011116995447486 68.704807693940907 82 61 47 1.1956972337683065 1 5059 2 12770 3 7570
652 40.279321772298715 8.4695669433817962 69.13252878930804 73 48 26 0.31673199341321662 1 13822 2 12990 3 7579
653 -7.3584899963979478 2.8834769984603104 29.887054081462573 36 47 30 0.67549391887896648 1 8369 2 8256 3 7581
654 -7.966128454909895 2.8671496214961341 30.10972136101805 31 43 24 0.55314594316966981 1 8375 2 8228 3 7589
656 1.7498023223558481 2.7504893368633336 29.843046371485681 173 176 146 1.3467982977759434 1 8328 2 14460 3 7600
657 -7.3722905483185919 2.7166121458553385 29.895537859670327 37 48 30 0.89127001934231365 1 5156 2 8329 3 7605
658 10.549347402242168 5.2393434490687207 36.686318231606371 137 134 113 1.1096371814552926 1 14102 2 7657 3 7613
659 2.2700445982123618 3.799744799191751 29.579864078514902 68 53 37 0.65439942956318597 1 5112 2 5917 3 7621
660 1.2755587241574762 3.8127434119883175 29.62507311801453 198 180 135 0.23933853095007054 1 8479 2 8254 3 7622
661 1.8060277850342525 3.7369145252200187 29.435533837349638 51 36 20 0.79246932690190164 1 8496 2 5090 3 7625
662 -8.1483449270342785 3.8112594556796147 30.281233219866028 50 71 32 1.0827244564006746 1 9199 2 8341 3 7631
663 1.1128082177782141 3.7526058929287651 29.826883512309283 39 30 21 0.49711388498986087 1 8500 2 8242 3 7633
664 2.470130832534521 3.7264419720637099 29.792254953262468 45 31 18 0.18494429904983475 1 13840 2 12798 3 7635
666 1.3107202281426804 3.6685911198512513 29.59845642037844 166 146 108 0.63220890715219491 1 6111 2 8264 3 7638
667 -8.1200877041438222 3.7424381353710716 30.364953739259196 22 35 14 0.41467501091722464 2 8356 3 7639 1 13812
668 1.7058376052680662 3.9865356142071757 29.480828316295703 92 72 52 0.42983620788592636 1 14051 2 8409 3 7641
669 -9.1589965190662177 4.2749125416525082 30.605494777512437 24 38 17 0.6802383338873742 1 5281 2 5083 3 7645
670 -13.279108021994057 3.4515047910054126 26.883696494263241 110 97 72 0.98141932040857993 1 9188 2 9095 3 7653
671 2.514431384430762 4.0668204157922814 29.7776678467017 147 130 96 0.3459474375499747 1 9171 2 8410 3 7655
672 1.0661922435974855 4.070303130818723 29.862744738510759 151 138 108 0.37724241896858723 1 5094 2 5130 3 7656
673 -9.9980692855855935 3.7762928912027971 30.722272852103096 99 115 62 0.94910046700754203 1 6074 2 8353 3 7657
674 2.1705865881066582 3.9748518984835424 29.551528120885177 86 64 47 0.50745116597279016 1 14055 2 13014 3 7659
675 1.8705427325982429 3.8965215398259487 29.427826942153967 24 9 4 0.4979617887462468 1 9200 2 8433 3 7666
677 -7.6500689094141823 3.4709243198801185 30.229910675828158 78 95 52 0.94532041203969186 2 8422 3 7688 1 8465
678 -13.292606835799861 3.8081246604224779 32.958233154540466 101 99 92 1.5989440894961904 1 8501 3 7689 2 8399
679 -7.1484083572159713 3.3316173045447917 30.331996964848674 89 102 52 0.74432402361393402 2 2746 3 7700 1 5067
680 2.829370962707948 3.2179119972405839 29.48955897194238 50 51 34 1.4678964041144491 1 8528 2 20529 3 7702
681 -8.5191526385294196 3.7155972141078393 30.381293091444245 15 26 9 0.11132804038217664 1 5101 2 5044 3 7705
682 12.762307223726889 2.5871664932208365 23.623841390592204 166 184 98 0.46562201113149715 1 16332 3 7708
683 -7.8633299461662363 3.6972717259301033 30.431620243632217 46 63 32 0.78034012422810217 1 8497 2 5036 3 7713
684 1.8671613055636764 3.5481025312977783 29.499190768141467 142 126 100 0.62939901745310944 1 13754 2 8209 3 7714
685 -8.3453416521106512 3.6371160022394142 30.300754334618201 18 30 12 0.41891611842620224 2 5034 3 7715 1 5103
686 12.702764965370646 2.55123838567614 23.681367529695631 182 199 111 0.60454909688122638 1 8312 3 7717
687 -7.7955637510862354 3.5130847775445027 30.072834592136953 66 82 43 0.98139818132263779 2 8466 3 7724 1 8447
688 1.2162671448327627 3.4414277994363229 29.57572930038511 177 166 125 0.80090153145070797 1 5075 2 5114 3 7725
690 12.529662296129084 2.4540168259042585 23.695565214880546 189 205 120 2.6969816729900611 1 15855 3 7729 2 14624
691 -8.3311117085227639 3.4752649144184571 30.240012865366491 67 82 41 0.34549725916098123 2 5131 3 7732 1 5045
692 -4.9452662685020288 1.7813834004638422 31.140976605975929 76 93 65 0.91482370381423095 2 14323 3 7757 1 16232
694 9.3022395676260494 1.2722797034003608 25.883735580820261 65 53 30 1.1028289394355182 1 10044 2 13868 3 7790
695 10.916604204039487 1.6216390774489218 24.732720929872396 205 212 139 1.5463527541588451 1 23423 2 13769 3 7863
696 10.69089079083494 1.5218983717849472 24.767885437809561 37 29 11 1.9892817920748211 1 16266 3 7881 2 9863
697 -8.7023876777021343 2.6552222532832177 31.30734799434617 34 46 26 1.4110291960507932 1 8410 2 5946 3 7894
698 10.951331134584487 1.7568700719270189 24.585649448332479 50 41 27 2.0692284156816458 1 4897 3 7897 2 5775
699 -6.3488926990573358 2.4085659905954504 29.743998105039658 59 78 43 1.2684036322106735 1 4782 3 7903 2 8640
700 1.7595124736073284 2.4525183362494141 29.989349303083035 196 200 168 0.8102939270828784 2 3279 3 7904
701 38.873987373877021 7.5048241246144523 68.498820076842421 153 126 99 0.33105527553646069 1 8468 3 7908 2 8319
702 9.096890709144553 1.4062146711568952 25.794862388090625 64 78 48 1.5971033803458035 1 8704 2 9862 3 7920
704 0.14689856731277251 1.4754745635456756 26.2314490669789 54 83 43 0.46464479487426219 1 8682 2 14536 3 7935
705 9.7661632806871186 1.3179634135731424 25.477225487441295 58 49 28 1.3046778030635926 1 8664 3 7946 2 9823
706 11.088120831771926 1.4946816758460926 24.887571935703175 147 162 105 1.7506371549700379 1 8689 3 7954 2 9819
707 -0.68145115391574795 1.3571085064878898 24.022000415229336 84 126 77 0.27444288456432825 1 16311 3 7961 2 22669
708 10.449958195972073 1.4513839699524951 25.107303072967028 51 40 21 1.163090193231344 1 16256 2 15237 3 7968
709 -4.1382452423288116 10.942258727088202 25.92449442866608 198 191 183 0.48414909574283072 1 9929 2 2973 3 7983
710 -8.9508934003741274 6.7763877424770538 29.335292591767395 253 248 196 0.75581185239398108 1 8981 2 8748 3 7992
711 -7.5431261661514499 6.872821175150464 29.689703869599377 153 144 106 0.63155583481830213 1 14678 2 13604 3 7994
712 1.7615801441898242 7.1853782823017482 30.353104486693386 22 17 11 0.64457813380581563 1 6098 3 7997
713 -6.9364756770706544 7.0690284823126381 30.436834802315659 154 151 123 1.2852759985531781 1 8976 3 7999 2 13605
714 -9.3706199915257891 6.6688258834538905 29.59660503252589 248 242 188 0.32885418798725546 1 8996 2 8841 3 8011
715 0.73713749400557538 7.1719387022346544 29.524185937922841 175 184 182 2.094848426460977 2 13373 3 8016 1 14679
716 -9.0173982215924315 10.182567620617291 24.959641041519188 224 214 200 0.77882134599429476 1 9647 2 4729 3 8020
717 -7.4292113563713791 6.9584306773510303 29.399994687983636 203 193 149 0.42452044398024857 1 9031 2 8774 3 8024
718 1.4026335629781717 7.5101009419378757 26.944621313046405 189 190 189 0.86970871295269003 1 8341 2 4812 3 8028
719 -11.863960545603847 7.5724773669017527 24.227365133872727 205 201 191 1.5070947922419551 2 2956 3 8032
720 -10.053798729923022 6.7890364631748366 29.062526529998419 88 73 60 0.85123943337132602 1 9029 3 8034 2 4804
722 1.9345581669936094 11.801929152682723 27.310894148248323 171 171 165 1.7367841716882282 1 9543 2 4703 3 8040
723 0.69231045103662026 6.7691457509006456 30.806859295516286 95 88 70 1.3564023323928467 1 8882 2 9157 3 8048
724 1.2310069652555209 6.5577070135939266 30.2211913551339 171 156 115 0.73676352894523511 1 8893 2 9243 3 8056
725 2.1072042739353924 6.5837974276936553 30.448088150445795 111 95 68 0.581559314844322 1 13571 2 9255 3 8067
726 1.6526578689539539 6.4955000605577355 30.200654869006812 79 58 36 0.71900292901490703 1 8852 2 9258 3 8070
727 -11.544346566941842 7.1677402021745573 32.213698531607079 15 17 13 1.476623214824464 1 2977 3 8075
728 0.51920513806507407 7.1887616414519897 31.049885210215301 15 13 9 0.32312199666985347 1 9096 2 9173 3 8076
729 1.3632447505706018 6.9606765253868099 30.267575130614045 61 48 30 1.1647826251087847 1 14661 2 9163 3 8080
731 -9.843809383641414 6.5843361088433605 29.858231265676171 220 219 165 0.56633527443436638 1 9092 2 8863 3 8087
732 0.9916859840258484 6.8186068246772251 30.367395223527055 148 134 99 0.60169994302314322 1 9064 2 9138 3 8092
733 0.49399090307366544 7.0518227290670303 31.349159209846786 7 12 7 1.2208948094065499 2 5170 3 8095
734 1.5309322957549991 6.7117540494873493 30.152033025150942 126 107 75 1.1494242879563474 1 8886 2 5304 3 8098
755 3.4888312750710746 11.029681107206242 27.43475639245953 179 180 176 1.8798579065114029 1 9723 2 8907 3 8154
779 -10.662351672356015 5.1269370120604245 31.344087742681516 13 20 11 0.56380602728872764 1 5220 2 5263 3 8239
787 -14.620960978150499 5.1692367828470207 30.352199196268664 32 29 20 1.6829057893881429 1 5200 2 5297 3 8271
791 -10.688698346033732 5.3766452630986308 31.278675549349103 26 36 18 0.59101506806280957 1 5205 2 5320 3 8276
796 1.7174445701261369 4.378152769694224 29.609022125991782 93 71 48 0.5374649161291033 1 9131 2 8369 3 8294
804 3.6211967827333846 8.4369109724966993 27.431292797000378 238 245 243 1.2833152653108424 1 9717 2 14037 3 8326
805 11.000861171049809 6.1190869312421938 37.235340287292182 134 131 109 0.85680623095570729 1 13537 3 8346 2 12524
815 1.2202473039624357 5.8058116540509852 30.214203417650875 92 74 49 0.63865347859778332 1 5261 2 2483 3 8383
819 1.3130212717134051 6.3719033965034049 30.173337758891869 139 119 85 0.42037489963743518 1 8857 2 9264 3 8394
823 1.9146852749223235 6.2076960953874938 30.138915839254775 124 104 73 0.44762265508796056 1 13714 2 9208 3 8412
825 1.396098429555259 5.4571487527524338 29.996415534020798 168 160 132 0.49835314168705952 1 5201 2 5275 3 8426
842 1.5589153823539645 -0.69328919932033606 30.606412301403434 113 161 114 0.6939978046477987 1 9480 3 8534 2 9525
843 -2.7354216088665515 -1.1346812774153867 25.406629049533194 113 158 126 0.76435626099718113 1 11394 2 10917 3 8550
844 -2.9950942843854333 -1.1445543038266059 25.021590540706459 109 153 120 0.44322230591861939 1 9682 2 10865 3 8552
845 -4.9731953910023483 -1.2048977008880823 22.870317226048982 76 101 64 0.83469908370428125 2 11316 3 8567
846 -6.762080017140959 -1.1981306916931864 21.890777222729547 140 163 106 0.59058934766636184 2 13233 3 8568 1 11201
847 -7.0438661547524823 -1.0306496375022995 21.668031739658009 134 159 105 0.80577215057714202 2 9766 3 8577 1 7495
848 -6.1707519833456086 -1.0535740682724248 21.871917510747306 118 145 92 1.8876333401046665 2 9586 3 8582 1 9699
849 1.6180102558693976 -0.61635920273623845 30.620684384363827 15 29 17 1.0713454589258824 1 9624 3 8584 2 9519
851 -2.9769979799757702 -1.0535218831220086 24.968168021671197 105 149 115 0.56242747840549767 1 17538 2 22298 3 8593
852 1.6131065457941869 -0.16330408663231286 30.577108092730523 116 164 115 0.61127494061461241 1 10253 2 10185 3 8639
853 6.7466824013009052 -0.81658329059849633 24.672684901449415 153 174 101 0.87823913091103079 2 9784 3 8660 1 9453
854 6.4613824453635784 -0.81165237806545298 24.984408190072166 60 80 49 2.9151127716370779 2 34626 3 8681 1 33991
855 1.6283564644046309 -0.43544493123185135 30.580067706694798 13 25 12 1.7268077897000518 2 5353 3 8703 1 9502
856 6.3550785474041742 -0.69857621601337583 25.656563598814653 66 85 56 0.84342447257058373 1 15295 2 9721 3 8709
857 -7.4095389473363324 -0.75718389602040059 21.406903034230808 134 160 95 0.92556700836672423 2 9734 3 8719 1 11388
858 4.931122332300391 -1.9845455921937316 26.797173620915242 37 57 34 0.59184526789543923 1 6804 2 11163 3 8728
859 -4.7256874938113782 -1.8777073712809376 23.855175074409857 204 242 186 0.66466170110017153 2 6126 3 8749 1 11792
860 -5.7388919223211659 -1.7160293997577329 23.259663201734412 239 255 214 1.9009711715116762 2 2361 3 8770 1 6070
861 1.5999891964988295 -1.8743674343194197 30.42907101430411 16 32 19 0.90656162832330078 1 3863 2 9760 3 8773
862 5.0118305205348035 -2.1353297467655548 26.455381042256182 80 106 68 0.94395057707499974 1 6882 3 8830 2 6859
863 -6.3338627033197605 -1.4054219832117072 22.280095611596138 132 160 104 0.37023382920099762 1 11187 2 11094 3 8863
864 -3.2919940772607514 -1.3330585251193483 24.870280781198893 100 143 118 0.19603866354333488 1 9747 2 9769 3 8900
865 -17.417985918524998 -1.4409072486569272 43.056112744973689 123 89 52 1.4977903365061078 2 22022 3 8915 1 15464
866 9.5557076566915153 -1.8162664822957837 20.454427038347006 208 237 186 0.44217986907774731 1 6867 3 8927
867 1.4869779572739976 -1.5860521418216591 30.59461716265595 27 42 28 0.67248225400131867 1 9665 2 9678 3 8954
868 6.0778101384634766 -1.6804680730062889 24.936572926855188 47 69 45 1.0914660936914866 1 3890 3 8956
870 -6.9136881708336908 0.40690840942926898 28.854528369511783 64 86 57 0.53473196092449504 1 10295 3 9027 2 9923
871 9.3404491105273078 0.21911556571074536 28.264935669041918 137 161 110 0.76759821978873621 2 5452 3 9032 1 5877
872 1.7343006579566151 0.5355322501829618 30.670631646372851 25 38 24 2.302243030864433 2 9901 3 9057 1 14484
873 1.6172400738859714 0.52336370048014613 30.78397690652465 41 60 37 0.62781616166396104 1 10005 2 9900 3 9067
874 -14.568867113551358 0.28932694666958536 32.297105782770345 142 125 83 0.5591294822654973 2 10016 3 9208 1 10315
875 -1.3221664381857905 -0.057921518844596009 26.641193398609659 84 121 86 0.78922845997231361 2 21772 3 9224 1 23033
876 2.2517179984632647 1.1652277708642074 28.501686347046803 129 172 131 1.0464846141564168 2 5752 3 9225 1 3788
878 5.9552892276207068 -0.38082139480501559 25.887143496722334 62 82 54 1.1370334188518658 1 6081 2 5579 3 9265
880 -6.7258517926360497 -0.44284167984271555 21.023754309902404 229 255 217 1.5010754711607814 2 11039 3 9283 1 15396
881 -14.739804731241058 0.502273811391164 32.041108112611887 71 73 41 0.38787330193519792 2 7631 3 9314 1 14979
882 1.678956903975823 0.23141494421035355 30.410187032593143 38 57 40 1.5180204242485129 2 10264 3 9315 1 14930
883 8.1063691740168817 -4.2033050319593359 22.944605965085284 126 153 125 1.2076784832242566 2 18999 3 9355 1 25357
884 -14.350109175960188 7.113640025405692 28.518673535248166 9 9 7 2.416860103532366 1 8314 2 20740 3 9416
885 10.437730816853248 -4.2078919083089295 22.243163605841698 189 203 112 1.4984281399045334 2 4454 3 9480
886 -7.6655234952384337 6.5923630199183059 30.228456800014158 50 54 41 0.077936650015868553 1 9039 3 9507
887 -5.2609834355252305 -4.3558450633616497 26.293471114036375 63 87 62 0.82791080470766365 1 12452 2 6245 3 9511
888 10.392817675525849 -4.2457073252699473 22.363231483220357 88 101 47 1.6804041842534161 1 17391 3 9522 2 19169
889 1.0389273381120532 -5.1159833513357587 30.746758713672307 16 42 18 0.85236018195234264 1 17264 2 12134 3 9553
890 -7.2655758066998954 7.0344627209621828 29.383998889592913 222 214 172 0.65447977644638389 1 11343 2 13596 3 9576
891 0.89423014867897987 -5.1398082832288097 30.80771071562376 38 61 41 0.81960617693674465 1 12534 2 11953 3 9584
892 1.4748893512126997 -5.0993462123615307 31.268548600349444 31 48 29 3.6079619642870013 1 17258 2 12132 3 9600
893 9.9807208823313154 -4.3020480300343209 22.448601090460198 79 95 45 2.6292968337900948 1 12461 3 9603 2 11564
894 1.0140281032238068 6.6811355462238824 30.299158601959117 159 143 107 0.45993524388444418 1 13649 2 21307 3 9620
895 -4.5856140754270944 -5.7401240056365781 28.158020494720564 51 76 37 1.011597013105864 2 12276 3 9624 1 13120
896 -3.071285443926925 9.7542119521288964 26.129201203749133 84 75 77 0.67524636834941765 1 14756 2 13101 3 9664
897 -5.0939145698544896 -5.2553807416983416 26.305838590104266 98 129 80 0.78735942707845297 2 11514 3 9679 1 19794
899 -10.350509055137886 -5.1283761524749334 24.020084462863611 97 104 49 0.95864257880462889 2 11799 3 9718 1 13183
900 -7.2840479752271312 -5.3279155877497217 25.015154333635575 115 147 103 0.93742962709319855 1 13306 2 18936 3 9725
902 -6.2938401932000758 -5.3626319010353161 25.525869407575964 55 78 53 2.079176399009476 2 11351 3 9757 1 13057
903 -5.5975296067876261 -6.3866365696192497 27.559909701011186 192 230 186 0.85165758938903602 1 20307 2 11895 3 9761
904 -2.7673279784363336 -4.0447608711329419 16.234204960612882 126 163 125 2.4852425192461278 1 12899 3 9765
905 -4.7455303055131992 -5.8534458361006383 28.06621358960178 54 80 39 1.0229215308988564 1 13169 2 11588 3 9771
906 -0.56649560000750754 -4.6612373962545286 23.132040217893568 28 45 21 1.342262277794511 2 11346 3 9801
907 0.76205292164827543 -5.7257376775879685 30.903169281930396 30 47 33 1.1799774305193154 1 12004 2 6332 3 9828
908 0.95172283666022928 -5.5228200076227782 30.788577819182674 18 37 19 0.87199723714498079 1 12453 2 12008 3 9849
909 -7.798436111956371 7.3096963197842522 27.722244699028646 254 255 241 0.720917903683581 2 20946 3 9854 1 14844
910 6.3235298858843603 -2.1832273864364655 25.060689564259345 41 60 39 1.4766727217158901 1 6847 3 9888 2 6853
911 46.757395411555891 -12.176652598899841 67.38999178151316 227 169 113 1.1462726987669261 1 7021 3 9904 2 16254
912 -4.2583336307193234 -5.5266072009442704 28.423375952502511 52 73 39 0.94875943797712414 1 12040 3 9913 2 6231
913 -4.9069656555432806 -5.090307718792638 26.304784274689741 67 103 56 0.50773976346195482 2 19056 3 9952
914 -3.9512345272532561 -2.3042199595272468 18.447521191642018 65 97 66 0.53708961751361539 2 16050 3 9969 1 16614
915 -5.4154004643628086 -1.7242045074002188 23.164841035327175 184 223 187 0.41653026031302459 1 18340 3 10014 2 26081
916 6.9035991302218198 -2.6922343375803797 25.922166445004962 62 80 60 1.3796595889374625 1 18182 3 10026
917 -8.9656880476556271 -2.3392888612349627 24.578372758125099 84 107 63 1.1458775744890595 2 17538 3 10038 1 11481
918 -8.1462389748361588 3.6754779948242433 30.370545695483752 61 78 39 0.2854966042565481 1 13805 2 7654 3 10079
920 -2.6911023260328522 -2.781943744937851 27.956443301991811 58 81 54 1.735614498775375 1 4061 2 10496 3 10102
921 2.7181186497440719 3.9141021620882412 29.95217070440237 48 39 24 0.21457730672324349 1 21270 2 19787 3 10170
922 2.0776931786653092 4.2245626126714582 29.603130454816299 175 153 112 2.103156434166527 1 21171 2 12968 3 10195
923 -5.1650447346022919 -1.8174413421862659 23.421836520868844 227 255 204 1.7316471995140199 2 6234 3 10209 1 11790
924 -13.480733701633495 4.2589037733870256 33.524078531095562 38 33 23 0.92258844813963503 1 5100 3 10250 2 5087
925 2.2133038942450685 4.1469685027376855 29.64053931721989 180 160 122 0.4442174333848814 1 14118 2 12900 3 10272
927 1.0834194526001459 -4.164964235774419 30.726555319310975 27 46 35 1.3119388667614797 1 12223 2 7415 3 10332
929 -19.27493755107729 -5.008094339997224 51.466665479744307 246 208 140 0.79495211195939042 1 6710 2 11245 3 10353
1076 1.092207475142889 5.652188764895512 30.339788510915618 143 127 95 0.34161930383201455 1 13430 2 12638 3 12338
738 -4.3326759601839298 6.7132557296019026 19.122516460617891 222 226 206 1.6531735909817362 1 14872 3 8108 2 7536
143 -7.5868447138210886 6.9825805424014549 29.57105076146734 210 201 157 1.8731209841461816 2 1850 3 1177 1 4749
1077 1.6583737532186622 5.5721671002093336 29.921491923304323 175 160 133 1.3764158401934505 1 30767 2 20063 3 12339
739 -7.8204010273627462 7.2476635162298937 28.268410885611942 155 139 103 1.0387116561565697 1 9208 2 6037 3 8116
2362 -5.3958438478156223 6.5974285993529342 29.917602949226755 109 124 106 0.75557352083491358 1 21818 2 33077 3 33893
144 -13.570973580807394 7.5934768894181683 30.267229178831776 10 10 11 1.4945823709255137 1 1236 3 1187 2 1181
1078 1.4788369726992909 5.6002361934222202 29.948799387640626 170 150 113 0.60927214013923081 1 13431 2 21354 3 12342
740 -13.752815210022312 7.5678449476046534 30.430525128730011 98 95 83 1.025790055001458 1 8523 2 8503 3 8117
145 -9.0676750414836462 7.2907718535312327 28.741957309459917 169 167 116 1.1828738349415706 1 1233 2 1794 3 1188
1079 2.2058254622217555 5.6301942842315258 30.03508302366221 138 123 94 0.72846081816064467 1 13432 2 12634 3 12343
741 -12.263728412679555 8.5335919977137511 24.251100297672412 226 226 212 2.1552493373576245 1 4998 2 4736 3 8119
146 3.2689679913604119 7.2849940787919278 27.726858728182354 207 219 228 1.7940219378159974 1 1177 3 1190 2 1194
1080 7.0976657884226118 7.1035717206375724 36.029913897464127 109 108 95 2.1786366708753846 1 8905 2 12669 3 12344
742 -9.3222426896846375 7.0880761212229766 28.605842182926558 60 60 38 0.52947517996219118 1 8926 2 8937 3 8120
2365 0.70862001483990655 6.9004793272332368 30.808627445700324 108 100 82 0.67990034136249988 1 32633 2 21278 3 33902
147 -6.8954612917860443 7.307202341089436 28.083581828632454 253 255 251 1.8846109204170922 1 1878 2 2915 3 1191
1081 7.9518044809448165 7.1076817315121099 35.949481077774273 137 131 121 0.43467292581691147 1 13678 2 12629 3 12347
743 3.3627415353519492 7.2729062435043321 27.518649002698755 214 225 232 1.1209554577569845 1 8898 2 8868 3 8124
2366 -5.2225967617063782 6.5924936181819422 29.959737249519236 52 66 49 0.54435464671255274 1 21809 2 33082 3 33904
148 46.768615532135144 1.7753677919135944 68.036895324970544 46 33 22 1.6689396053589194 1 1622 2 1221 3 1217 2 5662
1082 -3.2054453573352224 3.4364332515242828 21.102972766822532 51 62 40 2.860179297925066 2 2732 3 12348 1 9155
744 8.3671069771987536 11.832789283044766 28.714712576508081 120 121 123 2.6599686727378558 1 21317 2 8916 3 8126
149 2.2320816783677113 2.9483746816899634 29.477193497623446 43 40 24 0.39095858502457009 1 1305 2 1279 3 1233
1083 1.6881590468516581 5.6850825848305435 29.936558150420094 167 152 121 0.4220706502377562 1 13689 2 12644 3 12354
745 8.5197750388282198 11.793482172609922 28.544425947735078 176 181 183 2.7056587590922887 1 24265 2 13102 3 8128
150 0.54339756352673507 2.8607885420157526 28.892819578821172 106 119 75 2.6706158315135764 1 2807 2 2816 3 1235
1085 1.174014847163573 5.5061392633411828 30.24165098138295 91 73 49 0.59228482189481868 1 13461 2 12736 3 12363
747 -11.391985762542593 7.61453956768875 30.553811488592988 13 12 10 0.69370872506370718 1 14615 2 8749 3 8133
152 -8.8992934950588651 2.8496894349274111 31.144382258385981 41 54 32 0.73541544774659473 1 1303 2 1258 3 1252
1086 1.2305430096610459 4.235152852090577 29.820000414359946 95 75 53 0.65849854956006004 1 14137 2 8446 3 12370
748 -6.851283978262134 7.1738486826673942 28.895502689713787 139 130 91 0.36367004856139856 1 14537 2 13485 3 8134
2371 1.2609229433044702 6.6398296946879078 30.237495446604584 79 61 34 0.49095783808340271 1 32512 2 32566 3 33952
1087 1.3023959090837092 5.5554794321450141 30.102910251967796 167 148 112 0.21407197449698057 1 9299 2 9007 3 12373
749 5.2574527943788478 10.032245453826254 27.761270607892975 97 90 89 1.29721449525199 1 14876 2 7535 3 8136
154 3.3839036489124013 2.8974372424618098 29.701061302842195 50 52 40 0.93726000781088503 1 1304 2 1997 3 1263
1108 3.8794975003291712 2.6825660782829392 29.267335417891683 43 49 33 0.38395881584700214 1 15878 3 12549 2 14416
770 -6.228923236767729 7.3222329283399805 29.66690841653611 107 114 87 1.8152524029751771 1 22246 2 20881 3 8211
175 -2.9726931929506244 2.5979996650388473 20.636325862916866 252 255 240 0.61256271873502888 1 1775 3 1632 2 1981
1088 1.4608211944132408 2.9308308632742559 29.365280989994329 75 82 45 0.850575022166696 1 15907 2 20493 3 12381
750 4.7067205725992212 11.029462204605114 27.709106023183075 186 186 181 1.8217546041545802 1 9177 2 13070 3 8138
155 -8.6532880924498894 6.5301360095106995 31.045519639437025 95 102 82 2.0278380484401541 1 1350 3 1269 2 1140
735 -7.7651028336118175 6.650471429675985 30.364234080106609 184 181 140 0.71272478566288233 1 4811 2 2994 3 8099
2358 -9.6848419764452629 6.8138886749688146 28.568660537773052 161 156 107 1.1953995216885167 1 32852 3 33865 2 33007
140 6.0322310128127938 11.872937456460058 27.884073564274047 234 239 233 2.2442817242187583 1 1209 2 1185 3 1166
1073 1.2137688567693838 5.4489579350640653 30.186796532079523 170 163 127 0.3521649028240259 1 13440 2 12733 3 12313
1089 12.132086652861387 2.136583839717217 23.969454536401269 24 21 5 2.3291392475155814 1 15974 2 14544 3 12385
751 -1.497636058345019 10.333523235848153 26.465131541200584 197 197 191 0.69825923079683438 1 8621 2 8932 3 8139
156 -12.34628220890551 8.4410134930136032 24.247594435286498 76 69 64 2.1803416991777786 1 1247 2 1184 3 1285
736 0.76912359030592203 6.8127543674547351 30.670016913219946 58 49 38 0.64995950657789214 1 4837 3 8101 2 5195
2359 -7.589677999252233 6.97944633522083 28.996420964491062 156 147 101 0.35001762617028648 1 24501 2 32992 3 33868
1074 1.2416729564671436 5.2413329638831918 30.08617602811373 79 61 37 0.53089348527555602 1 13367 2 9023 3 12323
1090 -12.877793752758139 3.2470945432118876 32.272645274255723 38 35 23 1.5758368038645529 2 21989 3 12405
752 -9.4976974425448244 7.1816509303840101 28.345533800285121 41 36 23 1.1713019295762057 2 8944 3 8144 1 8480
2375 1.7774521693108165 6.7166565772098714 30.26302699561824 123 106 78 0.43000622933390797 1 32492 2 32507 3 33982
157 7.6134575027633984 6.490619654229123 36.094410169615855 15 17 15 1.5138284510572104 1 1371 3 1289
737 0.84189122275057093 6.7528526492230379 30.525966346093444 120 106 79 0.67860272500337337 1 4834 3 8103 2 5190
142 -6.6522388465799178 7.1383060812752461 30.333426474545981 47 53 39 2.1003335135784704 2 1853 3 1174 1 1564
1075 1.1573939008548328 5.3259015841339874 30.362352832665511 23 14 2 0.73335993599775229 1 15045 2 20083 3 12326
1092 2.90420208845959 2.881175330008539 29.483328633902246 97 111 76 0.41999039718036907 1 15930 3 12412 2 8669
754 3.6583624355602864 10.764762970879396 27.488109258949567 209 215 214 1.5793923946618342 1 8802 2 4724 3 8151
2377 1.9391326927679657 6.6792086813094702 30.261989949494104 123 107 82 0.75701156825793259 1 32503 2 21243 3 33994
159 -10.323967995201343 4.0431200083371541 30.861558291180526 17 26 11 0.7592905419302477 1 1798 2 1753 3 1471
1093 5.4608385605188792 -0.10963378094348833 26.464728338266678 51 70 42 0.64345019525853731 2 13985 3 12423 1 15538
1094 1.3270124592413646 3.2139124365253995 29.742950932183742 42 34 18 0.56798156339659478 1 8529 2 8338 3 12425
756 -6.6531567121553064 7.2478899327589827 28.259210446240562 254 255 245 1.6374878710559007 2 13538 3 8158 1 9166
2379 1.6560534656805159 6.6393874646367665 30.18774010579811 62 43 18 0.45778042970437144 1 32558 2 32579 3 34003
161 -13.247691335808874 -10.981340756459655 28.951238414082386 43 53 31 0.48336600033479726 1 1565 3 1476
1095 2.0759664283360557 3.1952832962298787 29.437111176532216 172 157 123 0.32849465582074244 1 13863 2 12831 3 12429
757 -13.821417867022973 7.5849166952058171 30.187693266847845 4 4 6 0.70871989176783201 1 8634 3 8160 2 8789
162 -2.0345348849865248 -14.314869359675237 35.309071831890165 254 255 253 1.2490120328369179 1 1570 2 1501 3 1480
1096 -8.4139347364846078 3.5315474321309135 31.545508974687369 28 42 20 2.5394318989555851 1 8557 3 12434 2 8421
758 -4.3928367182226387 7.1901341121803819 19.397818135298415 111 120 90 0.77197992897830803 1 9372 2 6105 3 8165
163 -12.628951929893699 -14.654262611603311 35.378858459682071 174 172 157 0.18916555085039688 1 1093 2 1079
1097 -7.9129317080888857 3.2505002494271151 30.122301186414955 30 40 20 0.99537268016337421 2 8438 3 12435
759 -11.302055903906096 7.8008677193520679 24.410092867978218 116 103 100 0.39642325450062049 1 4990 2 6110 3 8168
164 3.9946238910696388 -6.1322356898676285 20.402235137201771 245 255 244 1.0391827763191952 2 4343 3 1532 1 5576
1098 12.364151645620767 2.3614907396625409 23.746298673638435 191 205 119 2.0673176152378301 2 14763 3 12442 1 16016
760 -8.9195316366448818 7.304748267203049 27.817858466154881 254 255 234 0.54692393808455375 1 14848 2 13139 3 8174
165 3.6927995228419923 -5.7463286790516612 20.361323118807544 200 245 229 0.99506486900159796 2 1655 3 1564 1 1109
1099 -9.0711950655149742 3.4171199511362613 30.367790737397442 16 29 7 0.42161906214868511 1 8552 2 8471 3 12444
761 -4.3057035621812645 5.9728188499101931 19.124600173828465 231 236 219 0.82187602630084466 1 8950 2 4855 3 8177
2384 1.7933889330277033 7.0166134210666709 30.400295197551333 27 15 3 0.69383064128742855 1 24326 2 32604 3 34028
166 -13.862343301977711 -10.184148181154379 29.385859374892384 41 41 30 0.13189144319492666 1 1567 3 1586
746 -11.874771746691572 9.3042396740454905 24.42456444646659 199 195 180 1.4009613542001509 3 8130 2 21155 1 10326
151 0.85260751068747842 3.357649134189153 29.872963674513102 131 124 89 2.299854268912604 1 713 3 1240 2 690
1100 1.2978365165967551 3.0846944418288862 29.688335387399739 63 55 35 0.44589983298150654 1 13889 2 8303 3 12448
762 -6.3168866682237343 10.308314220878056 25.493252395779063 230 224 215 0.86611658892622234 1 9825 2 8781 3 8182
1101 2.3273419197337142 2.8201267254421496 29.278265920762099 50 53 34 0.98461089036717109 1 5122 3 12457 2 4971
763 -7.7679128502695063 6.9265782550316244 28.998418051147574 229 216 163 0.99594187903487585 1 6045 2 4799 3 8185
168 -3.2186790305946422 3.0995585802905583 20.261106307923434 255 255 248 0.71651571850091422 1 1794 3 1613 2 1769
1102 12.241033411105983 2.2757305518567565 23.859000139653215 194 209 119 2.6659921338580461 1 23544 2 14694 3 12465
764 -4.1984664122623458 5.8711007578853422 19.023153217977793 236 239 226 1.0212284066012032 1 4781 3 8187 2 2889
169 -3.158715074426786 2.9706858412755248 20.357766123014017 254 255 248 0.96637421764327847 1 1803 3 1615 2 1732
1103 3.8093814820263345 2.6088939917518981 29.509679208627972 25 32 21 1.6112985184263342 1 15685 3 12486 2 14244
765 -8.8767315537398641 10.07204359205657 24.988803391380902 94 79 80 0.48997807876421934 1 9582 2 8746 3 8198
2388 0.76963916455451498 7.0207365982337375 30.711570139871593 92 85 69 0.53305931109070814 1 32618 2 32630 3 34069
170 1.246798536174007 5.0942337463938161 30.011528223074173 159 145 109 0.72198909660262134 1 1738 2 1700 3 1620
1104 40.099259059963458 8.5558494655492652 68.664404349411058 203 181 145 0.4493178110496277 1 14084 2 12977 3 12510
766 -9.6648494320538934 7.3458080038777309 28.672332594114582 45 42 43 0.73104512268171429 2 2925 1 4792
171 -3.0995969187980563 2.846414120845806 20.451384889262851 255 255 247 0.9651008676000199 1 1765 3 1625 2 1737
1105 -7.1816405179379688 2.8538841720430312 29.926799432174004 34 44 26 0.60920108247711502 1 5121 2 5166 3 12523
767 -4.3266662001581766 6.1366897419280333 19.143390641441698 228 230 215 1.2002496626733148 1 4985 2 4821 3 8205
2390 1.8122885909843978 6.92144252657544 30.371608515190641 52 36 17 0.42034280963377224 1 32656 2 32641 3 34075
172 -3.0421563592804213 2.7263342400745465 20.548623943501699 253 255 247 0.61444230553214207 1 1771 3 1627 2 1745
1106 -8.806974045572586 2.9951974480175401 30.746407170983002 68 86 59 0.41988411024250305 2 12820 3 12526 1 15922
768 -5.7540667763443096 10.06774762811334 25.602712081890875 122 112 111 0.62751565992597691 1 9956 2 8979 3 8206
173 1.2768475609282857 4.6506681065492783 29.932649074553158 66 56 38 0.6314124321670338 1 1788 2 1757 3 1629
753 -11.903706378252414 8.9245916304710349 24.296181835237611 169 165 153 1.9739175962266025 1 2958 2 8954 3 8150
158 39.183994871301195 8.0935213880637225 67.909809001046114 210 182 143 0.29899491412164769 2 1736 3 1299 1 1769
1107 -10.117075736346067 2.9279572611231401 30.296839648153767 55 62 37 2.7600862586450958 1 8348 3 12527 2 5100
769 7.4619022492261129 11.834504686306428 28.612521862459182 148 146 135 3.2914085728219455 1 14734 2 15255 3 8207
174 1.3715089623465668 4.493990484614673 29.825943921805269 166 146 109 0.56872155348226949 1 1790 2 1758 3 1631
1109 -7.5661918259178913 2.7637526795532907 29.914478962771604 33 42 26 1.0338953023736075 1 8339 2 8308 3 12551
771 -11.864084972363152 9.2380341473247825 24.255823873786873 138 133 123 1.6797617416478439 1 9772 2 8795 3 8218
176 1.707084742781448 5.6238369070863277 29.914595737291688 160 147 120 0.44411550756498314 1 1732 2 1694 3 1647
813 1.1797700591979621 5.9206619226721999 30.325871275425047 162 148 114 0.37921249202904656 1 5265 2 5261 3 8377
218 0.93610942650697615 -5.244592138031738 30.80608539925521 173 216 141 0.4368793463607481 1 2057 2 2116 3 1997
814 2.1272236195408945 5.8208181867991327 30.099103056068504 152 133 98 0.41668642924561156 1 13698 2 9066 3 8380
219 1.5519505460586123 -1.4802269763928593 30.554185480430668 160 201 138 0.53772732787986099 1 2268 2 2274 3 2007
816 1.0297153813655826 5.8818890731386348 30.560439639871365 158 146 115 0.81970169912108359 1 9283 2 12627 3 8384
221 0.96847355295394566 -5.0554275476698116 30.76547717271642 168 212 138 0.97135569818030942 1 2075 2 2126 3 2050
817 -3.4524532050871524 3.6664701478945703 19.911916993743443 86 117 59 0.70287675917132908 1 13385 2 9134 3 8387
222 1.4728823861313569 -2.1120191948556508 30.595566814436378 161 202 137 1.0054462888733571 1 2219 2 2226 3 2087
820 2.1591267627493589 6.320742029082421 30.388781754208903 116 98 70 0.60882851127345716 1 13724 3 8404 2 9215
225 -3.2660737799248682 -3.0258493946932083 27.651721549758729 32 52 31 0.79266171907839045 1 3945 3 2145 2 2079
821 1.4739993330157701 6.2360177750856058 30.068855005785597 131 111 78 0.93327089929752438 1 8945 2 9217 3 8405
2444 5.3643616969243126 7.4240629904996922 27.700358121034448 230 239 243 1.21677968266824 1 11097 2 7560 3 36652
226 2.1561208035854049 -7.6189423025661895 27.997515338949 165 213 192 0.6257922899373386 1 1634 3 2247 2 2440
822 -5.592300812219225 6.4020579146935397 31.185106579026527 73 86 63 0.80956944425653277 1 8846 3 8406 2 9146
227 -4.8496302943759586 -6.2791204164309518 22.806596012709324 82 104 51 1.1750137678728485 2 1562 3 2262 1 2457
824 -2.1864372286448974 3.090134134328347 20.091635256584887 34 39 33 0.8806653315755355 1 9211 3 8416 2 5158
229 -4.3919701492430558 6.2724164274224989 19.340004667090479 110 125 94 0.46480213375166074 1 1817 2 1796 3 2290
826 1.8298996319951921 5.3813124770048475 29.74543191547194 155 134 97 0.62379663336233382 1 9242 2 9034 3 8429
231 12.504038735002403 11.495324373373339 36.16561926157658 58 55 46 1.0627626856064694 2 2893 3 2295 1 2474
232 -12.533001354710475 3.0261394720516641 25.674743424294469 70 65 39 1.6951170093576764 1 5054 2 2720 3 2306
233 1.5210800370825994 4.4899084133798288 29.673131641344614 68 53 34 0.76401278137227979 1 2761 2 2734 3 2309
812 1.5064561635402298 5.8321807550260525 29.949551062468963 156 135 98 0.52740400399228204 1 8930 2 9060 3 8376
217 -0.25398934764200753 11.086788534055012 26.794297964998439 196 195 191 1.7191239744588331 1 10004 2 4709 3 1994
841 9.9891158656058447 -1.0861363244940119 19.462302708880472 226 253 193 0.40970670003712228 1 9651 3 8522
782 11.100864282596108 6.5620467949257204 36.700172306107717 103 101 87 2.1721869369128641 1 13390 2 12712 3 8246
2405 -1.2083488724380607 -0.41004542201911148 27.172263037475449 37 64 34 2.2919248949643678 1 34278 3 34520 2 33935
187 -8.5031728441491587 7.2131430343166816 28.714889320915017 195 192 144 0.60293921942258411 1 3035 2 2912 3 1696
811 1.7084631844434022 5.8511298116172421 29.902869607611152 155 133 94 0.49377203231576061 1 8927 2 9057 3 8374
216 -7.9593817533726012 -4.7403318936948082 35.587087525672068 52 66 44 0.95613914166895564 1 2087 2 2105 3 1934
840 -7.2972105712662207 -0.85671197701870283 21.490174854294349 134 161 101 1.059833402958968 2 9691 3 8521 1 11351
245 -5.4892743282216454 -5.7506087293830239 27.030510264537824 85 115 62 1.5182062306791329 2 2672 3 2384 1 2586
781 1.7264950175639009 4.8300877040707162 29.800870881089399 96 75 53 0.79184223339827575 1 9326 2 5072 3 8244
186 3.8684078364140095 11.910895166628004 27.525521916031362 236 246 249 2.0530287672006122 1 1829 2 1811 3 1695
810 -14.366554771006687 5.955043973079774 30.780293231336643 133 138 127 1.8865675124377754 1 30691 3 8368 2 21678
215 -0.91518294666828781 1.0725103608414199 24.211848198984576 121 169 119 1.6802584410785795 1 10033 2 9839 3 1922
839 1.596197537889533 -0.79498340176998994 30.579395056315725 26 43 29 0.5468032727667298 1 9421 2 9476 3 8501
244 -7.2882804278703119 -5.0867557491236193 24.635838010555251 91 99 69 0.53603883961778731 2 6472 3 2365
780 -14.92469062598115 4.777804456954323 30.138413404087036 96 93 82 1.9847987295560927 1 9339 2 12650 3 8243
2403 -1.2509060705617607 -0.39573878950085295 27.141730823348936 163 205 167 1.162528483722064 1 9594 2 21837 3 34468
185 46.479364355963206 10.173769305941807 66.458704227835781 112 96 65 0.58787897278307777 2 2723 3 1691
214 44.385784908250116 8.7217431757222279 68.719159834816509 120 87 53 0.75668729895094222 1 2858 2 1734 3 1873
838 -7.1714429766144701 -0.94495017044104135 21.569703120693003 135 160 102 0.84150011835567506 2 9801 3 8500 1 9733
243 -13.230527225379287 -14.760163246445041 35.029117111020796 173 170 148 2.1986404356863445 1 2484 2 2474 3 2359
837 8.0288791222627616 7.0685998324139963 35.878953366687625 57 52 48 1.1678776282978769 2 12613 3 8469 1 2506
242 -13.571384986506878 -14.774544476066762 35.056271350031651 177 175 155 2.518496297540799 1 2483 2 2473 3 2358
778 -8.9584601140900251 5.0723369006795229 30.8409917454225 67 87 55 0.36422092610447426 2 5251 3 8238 1 5228
183 -10.479828990700394 4.2919203123140237 31.812112367006467 43 60 34 1.2441285795063801 2 2794 3 1682
836 6.8492660104117649 7.0850928809707243 35.965117122065763 105 103 89 1.0988230606287634 1 5272 2 9042 3 8468
241 -12.920358074282015 -10.978370187767755 29.019290341449867 208 208 177 2.4541449499056194 1 1574 2 1498 3 2341
777 13.998606435897617 3.5269052117068611 23.018869742864261 184 167 115 0.074060611673150659 1 9168 3 8237
2400 2.4649247099568647 -0.33878830640518764 27.718227566604241 157 203 160 0.24648078884902566 1 15501 3 34232 2 14010
182 2.6340196849065314 4.2983047697181602 30.043196147278969 47 46 37 1.1698449574884453 1 2745 3 1678 2 1766
835 2.0848500585986685 5.6308516882261594 29.983386325471205 31 17 4 0.65473205328097439 1 5215 2 5280 3 8467
776 1.3421674907531715 4.9781970723319091 29.838620815637672 98 77 53 0.15352485242104458 1 5331 2 5085 3 8235
181 -10.875454363825302 4.5333750459477784 31.214699509647961 38 50 31 1.1428130212223306 1 1321 2 1274 3 1675
834 5.1580233009172298 7.0789814421386987 35.933986421865917 94 93 78 0.61116943546069591 1 8915 2 9230 3 8466
239 -12.908711360301064 -11.75372868889232 28.841156337776969 59 65 43 0.37050492207494201 2 2472 1 1551
775 1.2517424622796818 5.0407058079567157 30.036836821324336 169 154 118 0.65331564340807313 1 9364 2 9132 3 8232
180 43.839980424476963 8.9455651975193184 68.531876617266747 185 165 133 0.4401072383608447 1 1802 2 1730 3 1669
833 5.384753576695986 7.0719428253579979 35.913730974567279 98 98 84 1.8666905563593754 1 8910 2 9232 3 8465
238 2.3415972338474216 7.5159350968988354 27.093797203558417 204 204 202 2.0265422355985474 1 2916 3 2322 2 1842
774 -4.2258812224640021 7.27473758250561 19.067408226259857 91 105 61 1.5868543041764047 1 9771 2 4723 3 8224
179 44.373689377424995 8.9084553862476632 68.207393538154022 179 159 126 0.50881301674282731 1 1801 2 1731 3 1668
832 6.104732147946061 7.0720099240039254 35.89993793553888 113 113 98 0.63879490117411575 1 8906 2 9050 3 8462
237 3.8789202226973836 7.503104290382657 27.408358979085744 201 201 199 1.1891874802966758 2 3054 3 2321
178 -12.741094608537791 2.6533767337582304 25.129909882066077 148 138 94 1.1937372795137013 2 1728 3 1655 1 1779
831 4.4949155660898601 7.0955422308332343 35.984172519651963 88 88 74 1.1136276387431181 1 13739 2 12684 3 8456
236 -9.1634256077058058 7.2638262334501249 29.316454926579532 58 63 33 1.6208608384817784 1 4740 2 2965 3 2320
772 1.5894389114061351 11.077645569904188 27.125444281638678 193 193 188 1.3826438892397244 1 15318 2 11933 3 8220
2395 1.227735652261789 6.9553846409677407 30.239596564152016 80 64 36 0.3535218723394476 1 21832 2 21607 3 34096
177 0.78921857447489085 3.607214292796701 30.396902576484674 29 33 21 0.51874576713035514 1 1773 2 1726 3 1654
830 5.8510795070761183 7.0728685166824263 35.917952401125874 103 105 89 0.60800769417451106 1 8909 2 9054 3 8447
235 -12.015094182507754 7.5387240312343593 32.09259363234645 59 66 60 1.1153740641111167 1 4724 2 8925 3 2319
829 1.2628383061881614 5.3012494405075969 30.007435300788465 171 156 115 0.44949124013577602 1 9261 2 9027 3 8446
234 1.6752941423902377 5.0342502984585105 29.830624922507241 149 125 90 0.64699086086259094 1 2502 2 2798 3 2313
808 2.1430570523398003 4.4527214688148291 29.749337525178415 80 60 36 0.48173261406788548 1 20519 2 12553 3 8352
2431 8.6619834951221151 -1.1845796694752253 20.371079424924552 90 114 87 3.0556726821815996 3 35913 1 26065
213 -8.7658355843015023 2.7319402234877512 31.18755853637774 91 116 75 1.4122457560197457 2 1980 3 1872 1 2831
807 2.367004523188585 4.5099206914659193 29.95613497671966 118 99 72 0.8668142911624841 1 13954 2 8343 3 8350
212 7.1228093105277974 -1.1879688606553134 26.011838632070553 50 67 42 0.5357917951562976 2 9587 3 1820 1 9873
806 2.4764397887996741 4.5565015094270906 30.125833694720068 18 9 2 0.74562171335734673 1 13958 2 8349 3 8349
211 -6.9883163261809056 -1.100275539636697 21.70400740081411 253 255 242 1.2671824079341618 2 1406 3 1818 1 1442
803 1.4016667772763471 4.1827448774565541 29.560983879581951 174 153 109 0.91746205388086466 1 9226 2 8448 3 8321
208 -8.9302748049257055 6.9067187954072109 29.100892455685923 250 244 191 0.57555703535047609 1 1889 2 1843 3 1758
802 1.1486247127609706 4.2687146953060875 29.822003103281823 159 144 110 0.81876861439994764 1 6021 2 5037 3 8318
207 1.6866278630937641 6.727829966856401 27.904863975847288 157 172 180 1.9306577204508599 1 4877 3 1757
801 1.0261504008731854 4.3768393863692516 30.071737803119561 75 62 41 0.40617758000188903 1 9134 2 8372 3 8307
2424 1.6411362606948829 -1.0210094363350601 30.3020818812772 128 167 113 2.8722949063079306 2 33544 3 35486 1 28067
206 -8.7032498512967997 6.8478551541691592 29.39368976854265 221 212 158 0.50047949812315007 1 1893 2 1840 3 1754
800 1.6694824394564027 4.2955741370561498 29.606366082666089 162 139 100 0.69218257736326338 1 9214 2 8390 3 8303
205 -9.1277680196011008 6.6637054309010759 29.720853039427613 234 228 172 0.54790408619688591 1 2983 2 1856 3 1744
799 -7.9706891611035173 4.4764262370643761 30.535037440472085 37 43 31 0.45630222293218242 1 9117 2 9126 3 8299
204 -14.316831433339425 6.356678406155666 29.978089465485095 22 19 12 2.6977027177787378 1 2978 3 1740 2 8742
798 2.540110925718563 4.4414851998260581 30.032871672181507 130 115 86 0.67212407486866044 1 9130 2 8364 3 8298
203 -6.1994966675402239 6.8784688529163809 30.569534078934407 79 92 64 1.1326960194917028 1 1858 2 3041 3 1736
797 -9.1497892263161624 4.5107670828176127 30.682594679663229 55 72 41 0.73321842324201114 1 9161 2 9119 3 8297
795 2.3319535487175029 5.1750839667462492 30.072545166603316 135 113 77 0.59487317698568898 1 9334 2 5060 3 8282
200 7.4506454639269277 12.107325396668442 28.715949622031971 189 190 192 1.7546998006766092 1 1208 2 1183 3 1727
794 14.064238008699704 3.6431961656112795 22.910586277254833 169 156 108 0.037027926136913025 1 9219 3 8281
199 -14.392162510452625 7.6595136051125641 30.384890111052208 12 12 11 1.0521169904649688 1 2922 3 1726 2 8739
